# .PCD v0.7 - Point Cloud Data file format
VERSION 0.7
FIELDS x y z
SIZE 4 4 4
TYPE F F F
COUNT 1 1 1
WIDTH 1758
HEIGHT 1
VIEWPOINT 0 0 0 1 0 0 0
POINTS 1758
DATA ascii
1.28213 -0.0827383 0.681985
0.622706 0.232206 0.178303
0.264393 -0.127357 2.36968
-0.350995 -0.222632 2.64526
0.834999 0.273563 0.213586
-0.159796 0.00732693 0.457179
-0.0139563 -0.180741 1.3459
0.736578 0.0999428 0.659316
0.641806 -0.150642 0.989815
0.200652 0.0571791 0.395344
0.463048 -0.0759182 0.732306
0.302635 -0.168663 0.817511
0.635119 -0.00160046 0.704108
-0.0804535 -0.110974 0.801179
0.285099 -0.0365957 0.536107
0.180638 -0.0334096 0.515634
0.670822 -0.0223071 0.753855
-0.203973 -0.141196 0.904825
0.384186 0.234018 -0.0243067
0.386023 0.159668 0.154616
0.0944935 0.182399 -0.0794762
-0.25517 -0.0355896 2.01203
0.225704 -0.0333579 0.582213
0.670989 -0.0518864 0.839138
-0.00861389 0.134021 0.265707
0.285739 0.0474562 0.472496
0.194513 -0.0214629 0.52471
0.739862 -0.00118586 0.707529
0.286731 0.0443878 0.465355
0.557078 -0.187013 1.20237
0.139646 -0.285049 1.1947
0.082636 -0.0833799 0.737378
-0.222718 -0.0096291 0.675682
0.0331699 -0.251547 1.4948
0.056196 -0.0934214 0.873937
6.79339 0.511689 10.1142
3.47279 0.482924 9.51046
0.181629 0.0794624 0.248936
0.0225823 0.170325 -0.0632206
0.849591 0.283203 0.227243
-0.112691 0.0680564 0.205152
0.0230821 0.208501 -0.141345
0.280808 0.0711523 0.26128
0.682719 0.18732 0.295727
-0.0303603 0.0512722 0.209172
-0.178446 0.23307 -0.121418
-0.474796 0.26509 0.232697
-0.466269 -0.179617 0.904333
0.609406 0.256918 0.0609656
-0.250477 0.178234 0.00659306
4.70595 -1.23727 6.77077
4.87991 -1.28519 7.00912
4.58756 -1.24842 6.50965
4.7456 -0.708743 7.05288
4.17153 -1.24653 6.46075
0.440367 -0.116504 0.774841
-0.243446 -0.0625947 1.87343
0.350553 -0.184566 0.980472
-0.0371924 -0.118174 0.978143
0.258941 -0.0306271 0.529144
-0.153967 -0.136587 0.978042
-0.0446196 -0.0721593 0.783898
1.02195 -0.561827 4.31097
-0.211848 -0.135921 0.92261
0.752648 -0.329397 4.12058
-0.346943 -0.197678 0.988422
-0.370182 -0.195096 1.00313
0.205625 -0.0315648 0.346609
0.132697 0.00164061 0.256412
0.174821 -0.309569 5.60226
-0.327884 -0.175535 1.05654
-0.385311 -0.175063 1.06101
-0.270346 -0.0450261 0.788633
-0.261828 -0.0289734 0.703901
-0.331336 0.00434786 0.703441
-0.744679 -0.926145 4.24465
-0.143947 0.00871089 0.109523
5.58538 1.45428 7.77084
0.828334 -0.203822 1.96653
6.82324 2.04177 5.1171
0.966032 -1.05046 4.18277
0.536961 -0.182043 0.88822
0.549762 -0.639659 3.18692
0.917727 -0.464695 3.35534
-0.955188 0.416134 3.31903
3.74551 -1.86647 8.5281
4.63554 -1.31442 6.63205
4.82725 -0.844483 7.22389
4.65276 -1.001 6.59079
4.67408 -1.07561 6.59993
-0.255854 0.0564768 0.792789
-0.369499 0.0127339 0.88963
-0.306806 -0.0121314 0.846692
0.508117 0.0694308 2.23723
2.59376 -0.438869 4.80788
-0.664102 -0.0558721 4.36877
-1.77456 0.0611641 3.40086
-0.399054 -0.214073 1.01346
-0.176027 0.080944 0.857311
-0.259503 -0.126325 3.10207
-0.224547 0.0624215 0.910817
0.0435942 -0.0588635 1.16037
-0.542213 0.0322626 0.72074
-0.187912 -0.0750423 0.833915
-0.40985 -0.0225641 0.739514
1.58586 -0.641329 3.56262
1.03409 0.105452 0.936476
0.673186 0.303747 0.100666
0.780538 -0.0311883 0.780929
0.191548 0.00911848 1.59478
0.910097 0.0100126 1.26614
-0.00490935 0.00829055 0.896985
0.141465 0.00989271 1.09872
0.141642 0.00659956 1.09034
4.69171 -1.19018 6.65536
1.09621 -0.101008 1.23825
0.905345 -0.144612 0.872494
-0.0276424 -0.0590033 0.566943
-0.305541 0.265693 -0.0074063
0.190677 0.156544 0.0184989
-0.348928 0.10511 0.17244
4.15235 -1.26287 6.58626
4.71748 -1.04319 6.98692
4.82686 -0.851406 7.16122
4.76662 -0.834054 7.05882
4.77846 -1.0027 6.9561
4.67763 -0.952468 6.57883
-0.307139 -0.0825565 0.851487
0.871669 -1.24516 4.93067
-0.343058 -0.114979 1.1404
0.997398 -0.709115 3.49338
-0.243713 -0.140401 0.793117
-1.26847 0.484305 3.72151
-0.197869 -0.752404 4.47496
-0.34349 -0.0215439 0.833408
0.19638 -0.00793564 0.286595
-0.192818 -0.135027 0.866999
0.0115211 -0.0631748 0.616338
0.439114 -0.0368153 0.78042
0.0138989 0.214321 -0.145534
-0.249955 0.185891 0.0185498
-0.484509 0.0989591 0.915937
0.238516 0.375551 0.0829253
-0.455149 0.234927 0.177339
-0.249992 0.178782 0.00639089
-0.272493 0.268216 -0.0726334
8.75456 -2.82668 15.4724
-0.628019 0.832147 3.69536
0.423985 0.0602883 2.48174
-0.242255 -0.131625 1.0042
0.220989 -0.0140712 0.418945
0.233963 -0.0126109 0.437136
0.0142161 -0.0168457 0.197832
4.62883 -1.51787 10.1065
6.22115 0.141126 9.20543
0.276014 -0.675903 2.99091
5.93189 -0.0203128 8.76488
0.0236156 -0.0110623 0.384161
0.312225 -0.0135578 0.511545
0.586077 -0.30487 1.29059
1.44017 -0.140731 2.71063
0.337388 -0.0505461 2.56891
-1.18968 -0.897237 3.80371
4.30789 -2.02996 9.83541
12.9821 1.45028 20.4442
-0.360674 -0.0317878 0.863715
0.305707 -0.568299 3.08517
-0.0239191 -1.02575 4.5295
-1.79846 -0.671651 3.94444
-1.30892 -1.11425 4.6722
0.46658 0.204864 0.163716
-0.0024627 0.0277228 0.428819
0.334659 -0.0765585 1.05325
0.514567 -0.149227 0.783894
-0.381515 -0.774467 4.23818
1.00097 -0.760484 3.89896
1.02709 -0.657764 4.02587
3.51641 -0.575833 5.97141
-1.48406 -0.634109 4.29704
0.250383 0.163217 0.0267466
0.381604 0.211848 0.0231516
0.47766 0.219821 0.17914
0.0439825 0.0980477 0.085801
0.509603 -0.261941 1.19798
0.658762 0.128729 0.972364
0.38999 0.0904197 0.415559
0.517112 -0.263292 1.24379
0.881063 -0.265546 1.49288
0.70161 0.0361641 0.687646
0.498549 -0.258608 1.09775
0.316606 -0.000872875 0.492011
0.190358 -0.044974 0.536311
0.192036 -0.0156018 0.459517
0.437003 0.032607 0.463154
0.370744 0.0131026 0.894552
-0.493234 -0.328602 1.71475
-0.206577 -0.126595 1.05397
0.714144 0.0531797 0.716686
-0.290513 -0.185092 2.04979
0.344731 -0.141079 1.69982
0.0204465 0.0124298 0.363298
-0.0385964 0.0545387 0.272813
0.0105104 0.0912464 0.200404
0.334204 0.00083877 0.50226
0.155773 0.0884001 0.330048
0.865628 -0.0779414 1.0867
0.438941 0.144469 0.447764
-0.075926 -0.0585526 0.857027
-0.348837 -0.073741 0.668662
-0.420637 -0.135901 0.771777
-0.339006 0.0656668 0.57889
-0.277989 -0.0892926 0.664576
0.385198 0.0850778 0.414615
0.166218 0.096154 0.34186
-0.049062 -0.0678237 0.576932
-0.20294 -0.187872 1.66896
0.544631 -0.135637 2.04859
0.217705 -0.0961611 0.739888
-0.611713 -0.0862597 1.02805
0.150467 0.00527413 0.441125
0.414415 -0.16893 1.6511
-0.154064 -0.0265904 0.698533
0.525599 -0.0726364 0.898064
-0.14115 -0.15815 0.824701
0.0272038 0.0787969 0.210065
0.531722 -0.0799935 0.889522
0.69755 -0.0181947 0.916432
0.198553 -0.106576 0.809434
0.0532779 -0.271623 1.74879
-0.0768807 -0.0694645 1.03234
0.467117 -0.148983 1.10462
1.37804 -0.151145 2.10009
0.690894 -0.0899614 0.872855
-0.0217584 0.017258 0.777875
0.182228 0.138158 0.451151
-0.198765 -0.0473486 0.6625
-0.21454 -0.192044 0.757795
0.637927 -0.150921 0.975108
-0.0165182 -0.145089 0.922763
-0.193747 -0.177176 0.817017
-0.303786 -0.132549 0.66833
-0.344912 -0.0201957 0.607016
-0.303491 0.046891 0.654546
0.53595 -0.112887 0.809739
-0.134318 -0.0885061 0.778286
0.339802 0.0489537 0.427566
0.389889 0.245924 0.0216628
0.318073 0.136201 0.116291
1.16905 0.0863172 0.691833
0.966332 0.0821324 0.84878
0.772711 0.242406 0.296287
0.382952 0.166442 0.153529
0.512186 0.0803687 0.405572
-0.247451 -0.328273 1.71757
-1.26761 -0.250551 2.10804
-1.16441 0.00593593 2.08592
-0.513336 0.0385368 0.593765
0.172386 -0.0133743 0.526023
0.245801 -0.0936589 0.749458
1.02868 0.101991 0.92754
0.207642 0.111322 0.305528
0.73308 -0.0101374 0.693847
0.492303 -0.0530161 0.605281
0.653047 -0.0675053 0.787946
0.668291 -0.0914355 0.833203
0.29763 -0.0287071 0.525213
0.276607 -0.0181684 0.510029
-0.357207 0.0840649 0.548932
-0.509904 -0.0151725 0.706125
-0.2401 0.0178528 0.535133
0.0451021 -0.0702048 0.591174
1.2004 0.165497 0.785403
2.38679 0.218219 2.53725
1.14073 -0.0884424 1.86346
0.377561 0.00274912 0.510888
0.152191 -0.00517672 0.565445
0.482619 -0.122107 1.18487
0.846043 -0.126109 1.9776
0.0165646 -0.0268633 0.69223
0.32849 -0.298361 1.91535
-0.28032 -0.266036 1.91154
0.2765 -0.0758919 0.580982
1.48487 0.15869 1.47884
0.390304 -0.158523 0.848269
0.630219 -0.0974563 0.860165
-0.174506 -0.713487 2.17632
1.10319 -0.821777 3.37463
-1.54118 0.927171 3.50258
0.610355 -0.127001 1.85893
0.0319047 -0.0122239 0.236828
0.216728 0.066536 0.346509
-0.00141703 -0.0080271 0.20197
0.00458291 -1.01841 4.22753
0.588789 -1.01195 4.39301
0.0738188 -0.0419727 0.952235
0.000515729 -0.258133 3.0252
0.537564 -0.127175 0.823117
0.361938 -0.0329052 2.68891
-0.950891 -0.638925 4.01355
-0.720487 -0.0453836 4.50905
3.5225 -0.583881 6.01604
-0.0390316 -0.665276 4.11569
-0.338926 0.0214232 0.654337
-0.643501 0.123942 0.728041
-0.462842 -0.0564839 0.788815
-0.412725 -0.0361577 0.71625
-0.0779212 -0.224267 2.06927
-0.224457 0.0534091 0.290728
0.182462 0.0861166 0.266927
-0.321159 -0.175843 1.02637
0.61473 -0.225494 0.824926
-0.852591 -0.430392 3.94636
0.950893 -0.223507 3.48545
0.461729 -0.235667 0.930551
0.442534 -0.250643 0.877233
1.84141 -0.175869 4.31694
8.23262 -1.00324 11.4233
1.8436 -0.175403 4.35663
0.822916 -0.0398506 0.858229
0.986692 0.135925 0.840049
1.1566 0.114402 0.971515
0.47423 0.115971 1.12316
0.986672 0.139117 0.836137
-0.0172979 0.00627296 0.40413
0.164697 -0.0239734 0.500652
-0.352153 -0.0284106 0.755996
-0.266002 -0.0159993 0.734493
-0.195365 -0.0816 0.806331
0.340407 -0.117383 0.732413
-0.0396744 -0.0530532 1.24122
-0.139759 0.00497852 0.990855
1.73785 -0.209359 2.29501
0.163453 0.0271146 0.336261
0.394367 0.0640753 0.434649
4.53291 -1.25465 6.47875
4.83642 -1.41883 6.99788
-0.18377 -0.0687564 0.802182
0.336596 0.058743 0.503807
0.415773 -0.0961706 0.86419
0.572898 -0.0646175 0.747831
0.421941 -0.0071911 0.616687
2.33305 -0.0797637 3.05946
-0.482744 0.0684647 0.360274
-0.0600985 0.150173 -0.0235571
0.847892 0.28226 0.229021
0.538231 -0.0656989 0.944036
0.386583 0.00102025 0.565418
0.119193 -0.0218678 0.339295
0.375495 -0.00508715 0.526381
0.345972 0.0511306 0.405012
0.119475 0.051167 0.202469
0.0278772 -0.00920772 0.250435
0.120349 0.0523464 0.203618
5.96329 -0.116251 3.11018
3.94492 1.64533 3.17198
0.633897 -0.135849 1.57542
0.755261 -0.142751 1.87694
-0.412258 0.052252 0.78756
0.410875 -0.0499331 0.76017
-0.109385 -0.610597 2.36714
-3.27861 0.352928 5.16913
-1.38136 -0.0659963 5.41081
-0.855423 0.157076 2.35479
0.232063 0.0732351 0.213378
0.382339 -0.0224531 0.552777
7.07977 -1.64493 12.9721
3.88334 -1.40634 9.2475
5.20191 1.11872 8.94868
2.71582 -0.252629 7.49368
2.6257 0.642503 8.60795
0.837446 0.33889 0.121506
-0.0990301 0.194287 -0.0667421
-0.498713 0.10962 0.735965
0.188066 0.151182 0.0129158
0.815314 0.378165 0.141445
0.21623 0.0237572 1.68114
0.724247 -0.00499629 0.885516
1.18464 0.184416 0.582895
-0.0051036 0.11921 0.0484387
-0.276023 -0.0256383 0.747359
1.19646 -0.0374158 0.793088
0.383419 -0.113132 1.17719
0.385095 -0.10897 1.15578
0.391267 -0.108719 1.18475
-0.577211 0.166035 0.69012
-0.41646 -0.0367595 0.727198
0.378689 0.209691 0.0208612
2.71592 -0.740195 4.21691
5.81334 -2.27061 10.1646
5.12918 1.21695 4.42093
0.355395 0.0663941 0.537826
0.272126 0.0797388 2.17191
0.585862 0.142727 0.308647
0.35483 0.0990906 0.220863
0.485593 -0.105171 0.799121
1.19094 -0.0494416 0.903079
1.21854 0.163779 0.630152
0.2073 0.0712919 0.249329
1.42362 -1.19566 5.77429
0.842596 -0.437451 3.92826
0.253476 -0.211447 2.39772
-1.33275 0.173462 4.19281
4.48451 -1.16023 6.50155
0.0669351 0.104258 0.0624155
-0.103625 0.223469 -0.121645
-0.323356 0.300278 0.0316399
-0.209743 0.00794925 0.454094
0.0272459 0.0343003 0.45318
0.211313 -0.030006 1.70047
-0.00149469 0.0272643 0.429309
0.55707 -0.223212 1.27118
-0.369976 0.0240767 0.667055
0.940893 -0.425595 3.42707
-0.373445 -0.216757 1.01143
0.306962 -0.51084 3.45325
0.176755 -0.0849761 0.729231
0.486362 -0.04807 0.637415
0.659387 -0.0636318 0.796078
0.598164 -0.0173084 0.639918
0.492575 -0.251297 1.76756
0.299751 -0.0254911 0.531395
1.4195 0.131314 1.39738
1.00995 0.131819 0.745549
0.253846 -0.157849 1.59034
0.374431 -0.235305 1.27959
0.2769 -0.0265402 0.465634
0.103308 -0.0533169 0.975011
0.00431471 0.0653203 0.535479
0.849192 -0.0517442 0.912421
0.891908 -0.0695397 1.15533
0.729891 0.0252623 0.576214
0.414721 -0.147637 0.914047
-0.338576 -0.262084 1.53276
-0.0665912 -0.080704 0.853287
0.325563 -0.189331 0.871242
-0.152824 -0.135312 0.943186
0.570782 -0.0844049 0.778339
0.0188001 -0.0909717 0.926954
-0.00469372 -0.086519 1.18097
0.481853 0.122904 0.495485
0.259063 -0.082734 0.621584
0.0172135 -0.0715614 0.570102
0.0201943 -0.011337 0.225684
0.148743 0.0155894 0.298909
-0.0456299 -0.0222911 0.327512
0.0192985 -0.00960355 0.228275
-0.507113 -0.0360569 0.811807
-0.41924 0.0330178 0.668938
0.162394 -0.0257923 0.502194
0.409948 -0.195439 1.22064
0.021638 -0.0585591 0.575208
-0.410661 -0.0048018 0.784256
0.100829 -0.18723 1.14857
0.785756 -0.172925 1.12627
0.783961 -0.00278482 0.762931
0.486617 0.115662 0.498292
0.578599 0.145141 0.522784
0.240589 0.0644173 0.411186
0.0717327 0.0837839 0.311095
0.522709 0.1023 0.5244
0.521223 -0.0814488 0.756719
-0.284047 0.00380068 0.646063
0.50107 0.0117165 0.676114
0.433115 -0.100534 0.836675
0.128927 0.0102113 0.456296
0.156226 0.0393158 0.390694
0.169596 0.0964623 0.345717
1.00969 0.00371124 0.880237
-0.481498 0.0572554 0.784052
0.234897 -0.019878 0.519752
0.213881 0.0381079 0.409742
0.390947 0.104043 0.278362
1.10508 0.159099 0.931595
-0.141295 0.171583 0.129001
-0.404056 0.0877696 0.693276
-0.259336 0.0706438 0.247286
0.755514 0.0154526 0.751456
0.57365 -0.0503165 0.797159
0.683314 -0.134456 1.07894
-0.328958 -0.216625 0.897418
0.0696867 -0.0406447 0.551271
0.570743 -0.254057 1.31147
0.356556 -0.117707 0.763749
0.152646 -0.0711538 0.557057
-0.0727162 -0.212811 2.04003
-0.238851 -0.14299 2.34992
0.248299 -0.145289 1.82649
0.835199 -0.141398 1.44677
0.227804 -0.0262593 0.521195
0.456413 -0.244666 1.10897
0.0802878 -0.0240408 0.921978
0.400408 -0.197811 1.20018
4.04374 -0.0928108 9.91572
0.029465 -0.067995 0.622162
0.274152 -0.0249112 0.51681
-0.0075789 -0.0797487 0.994788
0.188744 -0.0413046 0.54244
0.920985 0.00495809 0.884969
0.548992 -0.225858 1.35794
-0.0346971 -0.112331 1.45567
0.0587642 -0.192823 1.90217
0.759599 -0.0658769 0.827953
0.200901 -0.0865629 0.729451
0.112045 -0.0366099 1.55704
0.0876 -0.212442 1.64706
2.20625 0.0283488 2.29878
1.44699 -0.136164 2.22716
0.634392 -0.0615095 0.7778
0.276263 -0.0869166 0.645711
-0.199029 -0.180399 0.80114
-0.0457398 -0.0153444 0.444942
0.0548208 -0.247736 1.63494
0.191302 -0.0195983 0.525295
-0.460351 -0.0578477 0.782346
-0.517024 0.112507 0.585104
-0.6229 0.0587618 0.825217
-0.414022 -0.18189 1.02673
-0.615617 0.0635143 0.766877
-0.0640535 -0.0539508 0.563592
0.133536 -0.10753 1.73098
-0.0594114 0.0306374 1.67787
0.392286 0.175792 0.16946
-0.105262 0.110335 0.0596939
0.235221 0.0469941 2.24871
0.161382 0.0288433 0.337477
0.220314 0.0194016 1.93622
0.459588 0.0861009 0.360645
0.306114 0.0399395 0.44228
-0.0600478 0.152646 -0.0212435
0.250631 0.147564 0.0403065
-0.485042 0.212688 0.685903
-0.405689 0.0958073 0.707275
0.443631 -0.115135 0.74341
0.254292 -0.0161324 0.49934
0.260901 -0.0320486 0.522166
-0.147819 -0.124034 1.04939
0.186694 0.0247516 0.451991
0.257617 -0.0796049 0.630965
0.241488 -0.318723 1.37376
0.441789 -0.116505 0.774809
-0.318699 -0.112239 0.867076
3.34809 6.87437 10.8597
0.257419 -0.0416969 0.521013
-0.191512 -0.263654 2.5315
0.441871 0.149256 0.456215
0.849334 -0.0812334 1.05424
-0.0474545 -0.0407729 0.57848
-0.20814 -0.0650712 0.650587
0.242957 -0.0185536 0.482251
0.360536 0.043363 0.431631
0.529527 -0.103366 0.811102
0.243488 -0.310175 1.28571
0.773438 -0.00346619 0.848016
0.428166 -0.0458558 0.620719
0.40414 -0.167367 0.859596
0.56235 -0.0232382 0.570577
0.484108 -0.0205322 0.61154
-0.162472 -0.0297208 0.945639
0.12989 -0.281726 2.63759
-0.0139661 -0.0521493 1.2857
2.42293 -0.537713 5.94088
1.67567 -0.184462 4.29232
-0.222265 -0.159157 0.958851
0.59126 -0.0545459 1.0071
4.68188 -1.16451 6.62861
4.90401 -0.537248 7.46113
4.91519 -0.527784 7.47469
4.84017 -1.28492 6.97849
4.56112 -1.01796 6.46023
4.46091 -1.07838 6.40145
4.49943 -1.10731 6.41605
4.51006 -1.12003 6.41992
4.45386 -1.0795 6.40684
4.50233 -1.15097 6.5081
0.656213 -0.0642977 0.794909
0.668496 -0.0930746 0.832843
0.298552 -0.0283597 0.525465
0.0732059 -0.0457105 0.674275
0.156171 -0.0406086 0.616716
0.275033 -0.0140915 0.479307
0.299858 -0.0303453 0.522349
1.01251 0.00599193 0.883214
1.2364 -0.0147872 0.640175
1.25321 0.155348 0.612092
0.0298148 0.0808638 0.207616
0.714521 0.0599002 0.620045
1.27694 0.0544426 1.01934
0.499281 -0.21216 1.05225
0.360747 0.0500299 0.441201
0.394238 0.0135621 0.812533
0.657692 -0.140246 1.01656
0.0883204 -0.0447722 0.54969
0.788342 0.256359 0.26609
-0.404619 0.0965916 0.717303
0.0421855 0.106958 0.102339
-0.541969 0.0214006 0.881099
0.864125 0.0610422 0.618692
-0.310267 0.0328555 0.783327
0.190093 0.158802 0.0221848
0.647963 0.198108 0.364158
0.344662 -0.136982 1.78586
0.46031 0.126109 0.278516
0.40283 0.199011 0.179865
0.627285 0.178714 0.324474
1.28204 0.211077 0.951665
0.28352 0.0742094 0.258497
0.479977 -0.0342851 0.729087
0.55945 -0.13913 0.891149
0.741107 -0.00140419 0.711153
0.807496 0.035181 0.744341
0.516645 -0.149391 0.920314
1.25803 0.159862 0.888928
0.760322 -0.0650947 0.831197
0.421731 -0.168369 0.945537
-0.332047 -0.0629637 0.855449
0.171954 -0.00133968 0.566313
-0.410779 -0.121793 0.896841
-0.433484 -0.673469 3.77465
-0.388925 -0.0598484 0.894852
-0.287003 -0.489326 4.22372
-0.476257 -0.148917 1.04763
-3.39127 -0.50515 6.2904
-0.133574 -0.607855 2.15794
-1.1008 1.00796 1.95155
0.150625 -0.358871 2.31845
-0.146179 -0.105833 0.831684
0.257012 -0.487028 3.48629
0.796122 -0.391206 4.2639
0.76047 -0.409543 4.10815
0.138957 -0.272048 2.87569
0.052333 -0.0136466 0.269739
0.125612 -0.288814 4.67234
-0.000465836 -0.00777501 0.306157
0.12477 -0.291246 4.07061
0.0359603 -0.90606 4.67956
-1.04874 0.133185 3.84686
1.27051 -0.760498 4.13433
-1.62277 -0.444336 2.98127
-0.593315 -0.696474 4.21449
0.107127 0.00538892 0.183651
0.311548 0.0505827 0.451673
4.66845 -1.26145 6.62231
4.65119 -1.25615 6.59825
4.66797 -1.1912 6.59274
4.7443 -0.282907 7.78264
4.73114 -1.05317 6.80003
0.920645 -1.05624 4.11349
0.329384 -0.000487068 0.493252
-0.0787362 -0.0202552 0.527404
-0.324 -0.056791 0.728363
-0.0712145 -0.543844 4.0146
0.150193 0.0692213 0.232117
0.0685999 0.112345 0.0534322
0.724314 0.0666487 0.633756
0.515486 -0.11961 1.11945
4.51605 -1.24595 6.44801
4.36073 -1.15253 6.64222
4.4736 -1.26271 6.43547
4.65861 -1.00483 6.56409
4.50231 -1.2446 6.44677
4.79084 -1.38306 6.94721
4.52043 -1.18006 6.81535
4.53495 -1.08758 6.45258
4.54285 -1.06728 6.49551
4.53498 -1.11099 6.486
4.55783 -1.05717 6.49451
0.316828 0.0378313 0.384417
-0.211356 -0.00320327 0.839141
0.873279 -0.15394 3.04695
-0.0195285 -0.0508623 0.931068
0.475516 -0.169348 0.92644
0.734853 -0.108572 3.09923
1.92983 -0.5195 3.73892
-0.078311 -0.0498351 0.535528
-0.0808901 -0.0496719 0.542081
4.50076 -1.24333 6.66985
4.49967 -1.1189 6.45949
4.5422 -1.21997 6.48367
0.522146 -0.0781829 0.765677
-0.0845046 -0.337784 1.12807
0.0318053 -0.249615 1.50839
0.0732356 -0.190916 1.41459
-0.298311 -0.340816 1.75334
0.25411 -0.184148 0.829226
0.335288 0.0561061 0.50858
-0.146294 -0.000210606 0.416784
-0.039492 0.0519717 0.269111
0.32901 -0.190215 0.881138
0.169315 -0.115423 0.644698
0.162536 -0.0689196 0.571912
0.440362 -0.142449 0.864846
-0.17786 -0.00365018 0.388765
0.164886 -0.111313 0.762721
-0.393641 -0.106177 0.875074
-0.558096 0.0877352 0.6094
-0.526504 0.121335 0.603057
-0.0997072 -0.238958 1.76683
0.498298 -0.121501 1.03425
0.0519519 0.0575328 0.345454
-0.414394 0.0746152 0.567438
0.34688 0.054449 0.445339
0.326652 0.0507049 0.496522
2.06566 -0.0981275 2.8786
1.23219 -0.0155815 0.638125
1.29117 -0.0156391 0.879125
0.68662 0.190581 0.302604
-0.00751862 -0.0439848 1.21442
-0.00197583 0.122078 0.0548655
-0.149442 -0.0165738 2.51528
0.264539 -0.128358 2.41637
0.245972 -0.146162 1.79426
0.787225 -0.192251 1.71183
0.169605 -0.11467 0.649191
0.353231 -0.128847 0.739696
-0.551262 -0.70184 4.35159
0.454985 -0.0142022 0.643222
-0.196831 -0.0596236 0.826112
-0.478739 -0.202085 3.01985
1.21742 -0.0172957 0.619661
1.14758 0.144214 0.700448
1.53167 -0.109265 1.82811
-0.466907 -0.198569 2.87776
0.0217324 -0.0610054 0.561212
0.0747926 -0.047042 0.481977
0.00855256 -0.0545183 0.52982
5.40157 -2.10629 10.1111
8.84384 -2.93518 15.7773
1.14346 -0.286456 1.84379
0.518402 -0.309994 3.89908
0.0178623 0.0225297 0.384009
3.04628 -2.13177 8.90233
1.46023 -0.31436 3.74654
-1.13952 0.417783 3.66623
0.600919 -0.621911 3.40661
4.15382 -1.26491 6.55945
4.38346 -1.08811 6.92062
4.738 -0.292849 7.76919
4.16017 -1.267 6.62853
4.74389 -0.952377 6.69185
-0.543216 0.0771531 3.51374
-0.760073 -1.09821 4.72468
-0.109132 0.126481 2.77235
0.0958827 -0.183228 2.73821
0.26811 0.102022 1.18189
10.4701 -3.58145 19.66
0.310253 0.0424418 0.466388
0.0998232 0.193053 -0.0659894
1.01252 0.0946743 0.900883
0.778025 -0.0846162 1.15719
-0.093976 0.163499 0.173834
4.73053 -1.08983 6.71939
4.57924 -1.29406 6.57333
4.63611 -1.30067 6.59902
0.280621 -0.0128061 0.454877
0.311509 0.0441384 0.457009
4.76231 -0.947777 6.70417
4.51831 -1.07449 6.45156
4.51794 -1.24775 6.44772
4.45717 -1.12824 6.41431
-0.292835 -0.165854 0.964475
-0.244782 -0.0235127 0.675156
0.0031515 -0.0190932 0.260727
-0.252248 -0.130275 1.0241
0.379675 -0.157296 2.08182
0.434329 0.00285715 0.631835
1.33511 -0.0282072 1.26831
0.830397 -0.0374505 0.868233
0.689056 -0.0872867 0.879739
0.908348 -0.160651 2.01811
-0.157657 -0.0043862 0.420199
-0.16171 -0.000823726 0.422747
-0.0673302 -0.103496 1.06063
4.85399 -1.04442 7.55055
4.66131 -1.13659 6.57928
4.72155 -0.949886 6.69051
-0.222919 0.00643172 0.694977
-0.162275 0.103274 -0.0359904
-0.558753 0.151027 0.629028
0.0694998 0.103708 0.0603437
0.619413 0.286095 0.116361
0.585518 -0.140962 1.35648
-0.0773126 -0.0191898 0.483875
0.639945 -0.187845 0.982046
0.522545 -0.210621 0.983209
9.26952 0.22485 12.5776
2.4135 0.0656868 3.93636
4.1753 1.07831 5.30543
2.41675 -0.579427 4.94476
4.36836 0.964342 6.26025
-1.8737 0.0927697 3.56387
0.445581 -0.200493 0.916975
-0.00770534 -0.211096 3.23385
0.286693 -0.580266 2.90594
-0.472473 -0.117231 0.944379
1.01184 0.304197 0.488145
0.483899 -0.124881 0.980742
-0.0743859 -0.0267732 0.447365
0.948552 0.0762164 0.734039
-0.0856791 0.101342 0.0647723
1.12555 0.149615 0.726175
0.764256 0.0235608 0.748749
0.569115 0.14383 0.362697
0.783686 0.24438 0.302935
-0.158361 -0.0860528 0.709187
-0.213446 -0.171554 0.859682
-0.359637 -0.0349781 0.833171
0.223985 0.00514631 0.351755
0.020276 -0.0116548 0.225113
0.265988 -0.0399333 0.591178
0.624728 0.293609 0.119108
0.279492 0.0717257 0.26125
0.307052 -0.0100253 0.432195
-0.353072 -0.042561 0.864295
0.720212 0.308158 0.0531025
0.435746 0.107786 0.245792
0.157978 -0.00275307 0.597986
0.791743 0.0133929 0.981629
0.150844 -0.016136 0.560913
-0.256368 -0.0208926 0.711411
-0.435257 -0.179189 1.0282
-0.348704 -0.199466 1.0292
0.672552 -0.310369 3.85803
0.954318 -0.294829 3.76123
-0.375913 -0.0551811 0.817725
0.938707 -0.439643 3.42524
5.38307 -2.46185 10.7644
5.84106 -2.49061 9.53649
5.85019 -2.55985 10.0336
3.06803 -0.729123 4.65222
6.17952 0.728629 8.64131
7.01915 0.668573 8.01084
0.119118 -0.219778 3.54855
-0.953444 -0.71647 3.96852
-1.16471 -0.663448 3.67712
3.75367 -1.51416 11.0903
0.97459 -0.156005 2.41607
-0.0124041 0.0120738 0.350711
0.618887 0.284565 0.119725
0.37264 0.342742 -0.122308
0.167585 0.0325064 0.335878
-0.182114 0.100993 0.244706
-0.232621 -0.0281909 0.794569
-0.257066 -0.0472519 0.809372
-0.715582 0.0976827 1.0115
0.363881 0.332404 -0.133015
-1.29401 0.493922 3.77638
-0.221829 -0.125126 0.812038
-1.77977 0.0638993 3.37501
-0.954245 0.118604 4.08611
0.492976 -1.04866 5.00045
0.284323 -0.598366 2.86439
-0.335903 -0.0481518 3.48841
1.93302 -0.324652 4.71272
0.922522 -0.773786 3.25132
0.28685 -0.612181 2.88979
1.1679 -0.189361 1.79029
0.225413 -0.0473815 1.41696
0.0368997 -0.093997 2.17098
0.685051 0.188412 0.298096
-0.153355 0.00542369 0.45019
-0.160875 0.16467 0.0890745
-0.0644168 0.0863244 0.0699214
-0.0703781 0.0235662 0.386835
0.0944023 0.0437892 0.227316
-0.363358 0.0636264 0.645076
-0.301773 0.0261682 0.709692
0.555479 -0.140975 0.891475
1.4192 -0.142574 2.1679
0.801123 0.0327168 0.733115
0.657545 -0.064855 0.794101
0.511939 -0.15226 0.906614
0.908663 0.0314331 3.11709
-0.649391 -1.1797 8.73562
0.176235 0.174282 1.73203
0.511892 -0.314139 1.14354
0.27741 0.124966 1.80291
0.269273 -0.679163 2.81175
0.275256 0.122399 1.80155
-1.15926 -0.0528408 3.60863
1.01903 -0.69992 3.86189
5.58908 1.44336 7.75888
4.19092 0.974303 6.14009
3.10689 0.749844 4.8495
3.19072 1.49155 5.02224
1.35176 -0.560216 4.31111
4.51016 -1.28274 6.48014
4.47861 -1.27417 6.45135
4.68765 -1.16253 6.57736
4.48105 -1.26392 6.42931
0.636687 -0.354806 1.14433
0.274451 -0.294854 2.80741
0.28261 0.0116946 1.6116
1.38362 -0.0868171 3.49482
4.29456 -2.09245 10.2424
-0.65949 -0.336096 -1.49063
-0.82156 -0.474189 -1.22603
8.40535 -2.07847 13.9386
7.77096 -0.643763 11.1937
5.00805 0.0420484 7.21593
0.0914197 -0.0892479 1.07768
1.03618 -0.720729 3.54677
1.53619 -1.34284 6.99073
0.960051 -0.830191 3.72019
2.57315 0.648459 4.20044
1.67054 -0.0393042 3.80642
0.95046 -0.131972 1.26199
0.92728 -0.102979 3.24947
5.14733 2.01988 3.70663
6.17677 0.90724 3.84744
5.5975 0.479465 7.86824
3.20556 0.784844 4.5506
2.06728 0.152804 3.70155
-0.58333 -0.00769013 4.14271
1.30466 -0.0788743 3.45567
0.198972 0.033065 2.60829
2.08522 -0.0853346 4.26426
4.4837 -1.13914 6.41716
4.49125 -1.22121 6.42484
-1.43089 0.685555 4.50456
1.70977 -0.179031 4.02297
0.449672 -0.425022 2.85404
-0.552527 0.0964236 3.36125
4.73484 -0.703836 7.32181
4.61423 -0.291226 8.64186
2.74809 0.620039 4.33124
3.42558 1.56628 4.98067
0.0648161 0.166917 3.24221
2.12736 0.162576 3.71499
0.924221 0.0276307 1.25866
0.523236 -0.725303 3.09185
-0.831263 0.688761 3.66967
0.276287 -0.579104 2.98925
0.477713 -0.0445485 3.06922
0.425819 0.0838965 2.5584
-0.0104553 -0.663041 3.9187
1.34282 -0.344897 4.13936
0.267139 -0.0108486 1.0148
0.805294 -0.250457 1.44573
3.81758 0.283616 5.56661
1.0597 -0.735929 6.86
7.56103 -1.99987 12.5095
10.1909 -1.14554 13.372
-0.163849 -1.10784 5.48704
1.63447 -0.871432 3.96984
3.23569 0.443872 5.14508
0.979148 -0.163474 1.86568
4.09773 0.816892 9.1852
0.988494 -0.185581 3.78594
0.966996 -0.152491 3.89721
2.45369 1.36522 4.05809
0.0849546 -0.0479298 1.12606
0.874327 -0.740683 3.13192
4.19333 0.978837 6.15152
1.57115 -0.333246 3.66699
-0.859818 -0.855244 4.14717
0.606583 -0.077398 2.41842
3.93969 -0.544875 6.67596
0.0865891 -0.170654 2.91597
-1.1473 -0.65856 3.6224
-0.732151 -0.607055 4.01225
4.00615 0.264657 9.6
5.14882 0.283195 7.75869
2.79185 -0.397015 7.2347
4.67949 -1.26442 9.27811
6.08977 0.602521 7.80273
3.36257 -1.31685 6.9802
0.00249237 -0.0173717 0.258942
0.0783398 -0.0178123 0.2755
0.111797 -0.0215493 0.331787
0.0061596 -0.00602264 0.215776
0.508168 0.0482043 2.1772
0.870047 -0.428401 4.12437
-3.17257 1.46168 3.1803
5.75639 -1.65227 8.76659
2.73566 -1.38658 8.24763
1.97874 -1.20245 7.89181
-1.56991 0.612628 3.17131
7.97894 0.020765 10.7957
0.0528585 -0.00862069 0.223431
0.111244 -0.0218364 0.33003
-0.0182205 -0.0164797 0.24041
-0.0747886 -0.0154711 0.333203
0.120006 -0.0210588 0.342784
0.0323535 -0.011351 0.240973
0.169258 0.0425393 0.375907
-1.30757 -0.427596 3.58833
-1.23938 -0.607832 3.6845
7.51882 0.797876 7.37958
1.94139 0.907891 8.24494
3.13569 1.1462 8.44937
1.06103 -0.714318 3.63894
1.7084 -0.218513 3.87445
3.03406 1.73688 4.58563
0.531183 -0.137539 0.809292
5.05255 0.688825 7.9518
-0.712045 -1.08141 4.48359
6.96907 -1.58403 10.9386
5.9088 -1.53993 10.1787
0.217406 -0.00101451 0.322828
0.0478198 -0.0163622 0.440306
0.131402 -0.0036151 0.229609
3.58945 -0.573654 6.09343
0.954726 -0.0930284 3.49719
3.51351 1.65784 5.11176
2.31492 0.242812 3.69388
1.43654 -0.551524 3.62185
1.1172 -0.0159327 1.44733
0.801324 -1.05112 4.45169
-0.5963 -1.04946 4.53757
5.20164 -2.414 10.4759
1.67917 -0.159308 3.82843
0.487422 -1.19759 5.03825
-0.0664759 -0.0588805 0.506406
0.00891666 -0.00755209 0.21814
-0.248971 -0.855515 4.73696
6.23581 -1.57017 9.93522
-1.02613 -0.468566 3.45112
-0.466765 -0.530512 4.31763
0.63386 -0.0876707 0.91542
0.140109 0.191559 0.2443
0.0374453 0.030343 0.331411
-0.314774 -0.106373 0.889107
-0.50142 -0.150753 1.05266
0.776289 -0.173579 1.59274
4.68151 -1.13984 6.58417
-2.13889 0.957112 4.80762
-2.48186 0.492499 5.39848
4.57554 -1.19863 6.48974
4.4145 -1.1274 6.39323
4.45184 -1.09846 6.42396
4.41471 -1.1276 6.39204
5.23504 0.272534 7.45642
5.01761 -2.34408 10.9909
-0.372891 -0.0835347 1.2086
-0.594558 -0.0729007 1.42028
0.809968 0.0237252 1.09422
0.141581 -0.00275417 1.07681
0.335326 -0.0651468 2.53572
-0.0368413 -0.00770936 0.891856
0.457809 0.033907 2.13585
0.515298 -1.02479 4.93325
1.83283 -0.569814 5.89835
-0.618488 -0.722865 4.23031
1.62826 -0.877448 4.06192
-0.142513 -0.121165 0.881682
0.0741889 -0.06044 0.459096
0.493275 -0.0309237 3.00522
1.34411 -0.0997806 3.46283
0.796692 -0.271371 1.36785
4.62375 -1.30105 6.59221
4.68886 -0.980814 7.13343
4.78747 -1.09298 6.87464
-0.0233203 -0.771785 4.1929
-0.773071 -0.634235 4.01359
-0.0265467 -0.00869132 0.2626
-0.281436 -0.0871848 0.871301
-0.330955 -0.0834461 0.904979
0.0320026 -0.0122952 0.23709
-1.41602 -0.412053 3.86691
-1.95249 0.203077 3.52002
0.322427 0.108514 2.65656
1.84828 -0.329055 4.49956
0.524061 -0.0311136 2.90971
0.416307 -0.177785 0.76974
0.68751 -0.175276 0.970562
0.270156 -0.0340558 0.576408
-0.272774 -0.160265 0.989266
0.0344674 -0.0128227 0.239055
4.70822 -1.16284 6.63919
4.65049 -1.21009 6.58931
0.13112 -0.0158588 0.214686
-0.257577 -0.038732 0.781338
0.0325792 -0.0120144 0.24053
0.0307176 -0.010202 0.245481
2.69351 0.00854181 4.25005
1.92587 -0.563659 3.5323
3.35498 0.494175 4.80194
1.67564 -0.161187 3.82613
1.94871 2.26777 5.579
0.362219 -0.0105155 0.48881
-0.0264111 -0.0504028 0.51373
0.229518 0.0060006 0.357533
1.16885 -0.774181 3.49097
6.50328 -0.280987 10.5611
-1.04412 0.536119 3.47532
-0.908522 0.398565 3.06962
0.741766 -1.15673 4.14738
4.30512 -2.09155 10.9781
8.53635 -2.07731 13.674
2.3184 -0.604979 4.42164
-0.386404 -0.176298 1.09379
-0.773571 -0.621946 4.19562
0.00140945 -0.016224 0.269886
0.00142136 -0.0154194 0.27126
-0.380669 -0.120998 0.83524
-0.154419 -0.0545564 0.79653
0.0268855 -0.946039 5.17985
-0.115389 -1.05033 5.18624
0.32596 -0.115525 0.760336
3.96322 -2.59852 11.3972
-0.646887 -0.632044 4.19453
-1.21441 -1.00454 4.46675
-0.18703 -0.0737121 0.827531
0.266556 -0.0528735 0.551032
0.372731 0.116876 0.309661
-0.0430266 0.00557549 0.421091
-0.23275 0.0311269 0.231677
0.426401 0.0830366 0.473102
-0.254277 -0.0287114 0.688622
-0.159323 -0.0826004 0.753472
1.4856 -0.104211 3.07633
-0.304133 -0.0282473 0.77598
0.428875 -0.00169588 0.617769
0.0242637 0.0657629 0.168363
-0.0388929 -0.0409121 0.452736
0.228551 -0.0132554 0.430528
-1.32873 0.512027 3.82902
-0.587271 0.114007 3.42197
-0.49853 -0.106717 1.00714
-0.282959 -0.73952 4.59014
-0.0402909 -0.781754 4.46968
0.516381 -0.0485813 2.86668
0.539403 -0.137521 0.818186
0.296802 -0.478715 3.10782
0.233892 -0.432754 3.43463
-0.198235 -0.122032 0.868426
-0.209619 -0.0454275 0.709056
4.58044 -1.19214 6.56434
2.97409 0.215598 4.77902
-0.719444 -0.0356405 4.54505
1.83596 -0.887449 4.71865
-0.378775 -0.240383 0.983574
-0.366905 0.207011 2.17782
-0.393594 0.278225 1.96265
2.36969 -0.449077 4.47071
0.74572 -0.115066 3.02337
-0.272827 0.107311 2.9197
0.469021 -0.307906 0.734673
0.516879 -0.168524 0.725587
-0.82283 -0.82341 4.11562
4.62255 -1.01148 6.58673
4.59947 -1.11567 6.74654
4.3024 -1.13457 6.62047
4.58271 -1.1529 6.48994
1.34024 -0.603769 4.16109
2.08372 0.727692 8.04821
3.23808 -1.14857 6.73235
3.31029 -0.504805 6.85769
3.59307 0.168967 9.86536
6.82145 -0.314311 10.5163
-0.13634 -0.0358435 0.864303
1.66735 -1.03079 6.85229
0.131451 -0.255176 2.9545
0.759292 -0.0380205 1.44841
2.88474 -1.08693 7.59403
10.188 -3.17395 17.1878
0.506245 -0.294364 1.16934
0.957537 -0.276895 3.35859
0.848041 -0.288791 1.37646
4.65107 -1.0088 6.57652
4.63845 -1.08502 6.5854
4.70228 -0.959042 6.67922
0.17096 -0.00902916 0.530976
0.0739201 -0.017812 0.292943
0.494687 0.284576 0.306608
-0.177082 -0.0114223 0.640933
-0.149 -1.03596 4.80639
-1.0523 -0.563246 3.93921
-1.23106 -0.486312 4.00342
0.502831 -0.369475 3.33534
0.520585 -0.152717 0.779009
1.41285 -1.23797 6.24003
0.168104 -0.0334259 2.71257
0.990607 -0.00973749 1.19174
0.533035 -0.113446 1.15131
0.0192263 -0.0744988 0.592445
-0.346814 0.0239416 0.665123
0.506138 0.184605 0.287787
-0.00359259 -0.232225 3.06257
1.82574 -0.815972 4.63914
-0.197301 -0.0993762 0.763041
-0.37507 0.212719 2.18739
0.635748 -1.10825 5.1817
0.017358 0.0195199 0.370739
3.20481 0.780855 4.53758
4.52598 1.7165 5.50852
3.11509 0.796505 4.66942
0.4883 -1.04862 5.89235
0.51265 -1.05713 5.79934
1.47598 -0.977043 3.6088
0.165378 -0.00948442 0.333251
-0.398447 -0.192635 1.11487
0.191051 0.0125755 0.320188
0.020321 -0.000905806 0.201648
-0.0990877 -0.0622188 0.893075
4.67982 -1.23664 6.80061
4.57685 -1.30403 6.52625
0.47454 -0.00734546 3.16672
7.11933 2.79659 5.04147
6.70246 1.44253 4.39642
1.58132 1.2685 5.04248
4.69523 -1.1909 6.65707
4.72445 -1.23868 6.84069
4.5697 -1.08577 6.47207
4.7391 -1.06039 6.62194
7.48445 1.76061 6.07314
5.74527 1.62419 6.47923
1.68576 -0.0207687 3.80474
0.773304 -0.119615 1.98629
-0.160418 0.492495 2.34657
0.945665 -0.308131 3.19914
4.49381 -1.13591 6.41278
4.53912 -1.22603 6.43014
-0.0427489 -0.0158975 1.21964
0.778769 -0.201836 2.19733
1.03432 -0.264625 3.27455
0.285369 -0.60842 2.66986
0.129087 -0.325558 2.6604
5.20031 0.243301 7.3383
4.63309 -1.31192 6.7384
4.69807 -1.235 6.74199
0.495968 -1.22465 5.98829
1.21028 -0.253059 3.56467
5.71213 0.793587 8.0069
0.471888 -0.267391 3.2474
0.462517 -0.142673 3.95115
0.942107 -0.364606 3.26471
0.457679 -0.00263624 2.12575
0.282995 -0.143882 2.83136
4.14029 -1.21271 7.744
6.33126 1.74752 6.62463
3.18337 0.0641159 4.68995
1.80794 -0.704111 7.21462
1.76978 -0.65573 8.48544
1.33649 0.098001 3.48956
5.40052 -1.50883 8.06678
4.46862 -1.24784 6.41771
7.1512 -1.60765 10.668
7.16254 0.0435591 11.6221
7.31323 -0.0272625 10.2142
2.19242 -0.385046 4.64242
-0.0564018 -0.182615 3.4488
-0.153735 -0.0623301 1.17091
0.596023 -0.328579 1.14666
0.515131 -0.0566209 2.86698
1.36779 -0.578766 4.28682
-0.84608 0.818539 3.93876
0.235708 0.0126943 2.62314
6.4749 -2.06609 10.5813
3.88743 0.454671 5.9264
5.5705 1.41643 7.71348
8.28605 -1.01974 11.5524
2.71191 0.364739 4.31516
7.59316 0.170913 12.2667
2.22154 -0.56751 3.81076
0.961371 -0.268403 3.36126
4.48752 1.49234 8.4871
6.48634 -1.0778 9.06444
0.808134 -1.06917 4.73168
-0.448988 0.530912 3.01797
0.800397 -0.816422 4.34646
0.844203 -1.05575 4.73556
0.818855 -0.247751 1.49796
1.79116 -0.404882 4.95772
4.63272 -1.09211 9.0803
4.15848 0.285624 6.71487
6.82939 1.08655 8.68067
2.34823 -0.664897 4.48127
3.61922 0.0978397 5.42563
2.28081 -0.276633 4.83732
0.265954 0.0140625 1.05357
-0.0872319 -1.2733 4.97025
-1.36806 0.644778 3.70851
-0.199135 -0.822215 4.1277
0.921579 -0.483058 3.34886
0.0743155 -0.0375461 1.15734
0.27798 0.0762412 2.23943
-0.205727 -0.792811 4.29968
0.170367 0.213531 1.82606
0.434703 0.06982 2.06905
2.12093 0.600342 3.93433
0.954627 -0.501671 3.25307
2.54107 1.10802 4.25443
1.03455 -0.525676 3.6444
4.64466 -1.32822 6.77915
4.72061 -0.891816 7.15254
4.8532 -0.416725 7.53735
4.69267 -0.982445 6.61011
0.867034 -0.263719 1.48821
-1.56079 0.796708 4.88335
3.26929 0.667894 8.50076
6.40294 1.93082 3.94041
4.05938 0.188347 6.26288
3.06436 -0.702002 5.17974
6.19873 0.135066 10.1053
4.65074 -1.28407 6.81706
4.48272 -1.2693 6.45502
4.55406 -1.10497 6.45921
4.63702 -1.11857 6.55239
4.51367 -1.16139 6.44871
1.91365 -0.509589 3.73954
1.90111 -0.52022 3.64019
4.37212 1.51229 4.58467
2.17124 1.06509 4.02983
0.908801 -0.423385 3.63755
1.92678 -0.563789 3.53082
-0.718779 -1.09274 4.62278
0.270809 -0.676581 2.71114
4.55017 -1.19959 6.48548
4.6817 -1.2401 6.7485
4.53269 -1.2325 6.45606
0.537859 -0.179224 1.19955
0.522095 -0.138393 1.27716
1.70857 -0.261543 3.87348
-0.496994 -0.109826 1.00158
-0.358563 0.0217681 0.653281
-0.298458 0.0821939 0.247165
0.430497 -0.0659591 2.92146
-0.175171 -0.0985411 0.990909
0.0729858 -0.0181255 0.291291
0.0213396 -0.00951789 0.392676
0.120221 -0.0210267 0.340286
-0.00777794 -0.0103217 0.196732
0.138771 0.00566104 0.266593
-0.201667 -0.756425 4.35921
3.8847 -1.89777 8.75608
0.253334 0.0763202 1.17272
-0.397312 0.0795937 0.842605
1.27854 -0.223603 3.72545
0.584613 -0.20509 1.5051
0.468147 -0.273522 3.3584
-0.225923 -0.145512 0.897771
0.0518826 -0.0147157 0.264778
-0.180897 -0.129616 0.892645
-0.220382 -0.143271 0.890233
0.273855 -0.676359 2.84254
1.5588 -0.566011 4.23954
1.29497 -0.0769121 3.45003
0.864057 -1.02872 4.4015
-0.0216029 -0.778012 4.48412
0.807444 -1.02127 4.10445
1.63117 -0.313184 4.90894
2.88557 -0.80279 4.50386
2.66986 -0.659676 4.92873
4.33218 0.920959 6.20431
1.69708 -0.357645 5.45044
0.660093 -0.128336 1.62159
0.335594 0.0439357 0.374117
0.139579 0.00705199 0.271489
0.00882913 -0.0078982 0.217721
0.362512 -0.010601 0.57381
0.0755585 -0.0887325 1.08849
-0.204731 -0.0788812 0.896635
-0.00747455 0.00923303 0.9031
0.5103 -0.121481 2.80657
0.224758 -0.134816 0.622177
1.65552 -0.149199 3.82332
-1.42397 -0.642745 4.43286
-0.571875 -0.766489 4.62987
0.711287 -0.156199 1.00978
1.45888 -0.840172 4.896
1.39404 -0.218572 3.99629
-0.112662 -0.0311119 0.850191
-0.0774494 0.0444095 0.844936
1.77026 -0.815931 4.51706
0.218136 -0.0775076 0.70945
0.219757 -0.0762384 0.715343
4.87675 -0.565489 7.41509
4.8711 -0.381071 7.57394
4.7058 -1.17451 6.86296
4.57584 -1.20418 6.94589
-0.312455 0.110051 2.95894
-0.0152894 -0.0566825 1.28743
-0.288697 -0.0964332 0.882657
0.224761 -0.149055 0.602305
-0.406694 0.0145318 0.682444
0.414383 -0.0484351 0.760342
6.65189 0.486303 6.22535
-0.205715 0.0767857 0.159363
-0.149337 -0.0918889 0.676824
-0.197921 -0.133933 0.970442
1.6057 -0.891782 5.33017
-1.66983 -0.618691 3.2047
-1.16672 -0.597148 3.48593
-0.735653 -0.920845 4.23659
-0.361971 -0.212857 0.984259
0.825104 -0.267831 1.11645
-1.18161 1.24906 4.88335
-1.18642 1.23996 4.88608
2.64303 -1.32381 7.3909
8.07476 -0.913638 11.8637
5.07598 -1.63234 11.3454
4.59114 -2.31708 11.2938
8.15241 -1.83664 12.1429
2.2623 -1.6484 7.99132
0.0346289 -0.0123728 0.239283
-0.466448 -0.194328 1.17468
-0.416577 -0.124133 0.90347
-0.0153436 -0.0442261 0.42369
0.215403 -0.0318528 0.487979
-0.0634438 -0.0197905 0.31066
0.313811 -0.0110859 0.53467
-0.186003 -0.766421 4.66438
-0.335232 -0.734668 4.35685
-0.154056 0.0954299 0.201743
1.53575 -0.131418 2.1247
0.071755 0.0802438 2.88864
0.002009 -0.0402456 1.264
-0.476037 -0.168132 1.17714
0.0965977 0.0267755 0.90271
-0.215056 -0.023467 1.26901
-0.143014 0.088743 2.8117
3.62047 0.353608 9.86582
5.11155 1.04449 8.95849
7.05292 -1.17819 10.23
5.70645 0.777149 7.96055
7.99519 -1.22892 11.7801
4.4276 -2.19346 10.2862
4.23054 -1.86074 10.5823
4.7776 -0.793156 6.92812
4.16561 -1.24418 6.44746
4.16478 -1.24387 6.44569
0.774795 0.0237429 1.60052
-0.664349 -0.648834 4.04384
0.0189578 0.0540535 0.899698
0.78766 -0.0825438 1.15938
0.27348 -0.159652 0.675427
0.687833 -0.135112 1.08803
0.813257 -0.0591582 1.20876
4.44774 -1.22805 6.6206
1.34503 -0.58871 4.11759
0.430903 -0.10801 4.06206
0.322565 0.0417353 0.391371
-0.392825 -0.0995571 0.912434
0.166952 0.00233296 0.59122
1.65136 -0.215753 4.44395
3.88051 -1.98369 9.17725
-1.53156 -1.05077 4.71219
4.63326 -1.17906 6.87165
-0.419666 0.101392 0.664172
0.520259 0.129629 0.461953
0.131523 -0.00297961 0.232887
0.308933 0.0490448 0.448129
0.929232 -0.755136 3.0685
0.186868 -0.525984 3.48887
0.495567 -0.0613022 2.97651
0.197947 -0.5428 3.41989
-0.147721 0.473421 2.30924
4.62942 -1.11032 8.69268
-0.522523 0.566291 0.824683
-2.51919 2.093 5.06548
-1.31464 0.718243 3.52021
-3.28536 0.0115202 5.02218
-0.306353 -0.12109 0.790068
-0.370735 -0.0361592 0.666713
0.0212718 -0.0033028 0.197121
0.492324 -0.00478897 0.717137
1.34432 -0.131668 3.80226
5.33102 1.56022 6.16821
5.43206 1.3988 6.12451
1.36932 -0.161466 3.7401
2.04221 -0.603159 3.57762
0.0181433 -0.0620947 0.587664
0.399478 0.00324053 0.583334
0.586279 0.00860605 0.867792
0.0143559 -0.0615939 0.598747
4.72853 -1.27807 6.88979
4.67607 -1.13307 6.60505
4.71389 -1.13458 6.70326
4.47766 -1.32958 6.82091
-0.186213 -0.104629 0.845853
0.49665 -0.167853 2.56017
-0.00578418 0.00976502 0.899041
0.263547 0.0886134 2.27101
1.25124 -0.236202 3.64604
1.56379 -0.938352 3.57993
3.18263 0.79556 4.54995
2.65461 0.242076 4.15801
2.96385 1.09441 4.58293
-0.156438 -0.0972349 0.652735
0.075287 0.0366388 0.391961
8.3963 2.13869 6.98492
4.0032 1.87343 5.14172
4.1777 -0.682168 8.67919
13.7932 -1.48655 20.5722
7.39476 -2.85748 13.1793
9.72328 -2.97146 16.8865
6.3099 0.122289 8.96992
9.34563 -3.05947 15.6031
0.946793 -0.383142 3.28885
1.32301 0.062025 3.42508
1.9546 -0.338533 3.69229
4.63587 -1.02337 6.51246
-0.306476 -0.0614407 0.807407
0.148676 -0.00473259 0.316008
0.184778 0.0123625 0.302355
0.0753234 -0.0466458 0.48075
6.62652 1.60254 3.50686
5.1931 0.694899 1.99238
7.50102 -0.830097 8.65737
4.51174 -1.26479 6.46685
4.52969 -1.25866 6.4807
0.812158 -0.417792 4.05283
0.882252 -0.712404 3.40133
0.349615 -0.0430924 2.40822
1.27271 -0.74078 4.00211
-2.10173 0.338174 4.64546
6.50395 0.666007 4.70866
4.28593 1.06925 6.3699
6.70296 0.738753 4.8827
5.4646 -0.457893 3.6287
7.30111 0.496106 4.79063
5.49424 -0.459013 3.66604
1.33612 -0.336467 4.17647
3.52648 -1.64396 9.91142
7.34221 1.74933 5.92392
0.153856 -0.0011448 0.329121
0.760996 -0.0680262 1.31066
0.754164 -0.0705009 1.292
-0.916215 -0.810146 4.09544
-1.23921 -0.751608 3.55279
0.421396 0.119251 2.64528
-0.362022 -0.190691 0.981786
-0.32019 -0.112373 0.861234
-0.313258 0.0506399 0.582873
-0.555232 -0.0487038 0.902999
-0.00153071 0.0250022 0.426585
0.714527 -0.00996031 0.947974
-0.0764311 -0.0260823 0.48803
0.392747 -0.0403597 0.690084
0.70371 -0.0939024 1.07902
4.78145 -0.78711 7.00393
4.80938 -0.804584 7.10543
4.68975 -1.14519 6.61146
4.63724 -1.25501 6.59124
4.65228 -0.954518 6.59488
4.55638 -1.10541 6.48679
4.72724 -1.00546 6.72131
4.65584 -1.28434 6.57209
4.66624 -1.16872 6.58501
4.64499 -1.26809 6.6267
4.67332 -1.08141 6.62693
4.58429 -1.05179 6.46992
-0.860567 -0.449555 4.03433
0.505015 0.0824595 2.25618
-1.15722 -0.606487 3.65349
1.34386 -0.464525 4.01202
-0.760283 0.964706 3.9862
-0.0506394 -0.0121802 1.24319
-0.235057 0.0285226 0.889611
0.0528082 -0.0187607 0.198794
-0.0427592 0.0030938 0.303485
0.553701 -0.638066 3.21003
0.0736309 -0.0790109 1.09984
0.773708 -0.0932023 3.11408
-1.14475 0.415394 3.51237
0.237925 -0.00495313 1.04661
-0.986444 0.477902 3.29103
-1.29364 0.476966 3.71508
-0.00102873 -0.0382874 1.27732
-0.18534 -0.132215 0.898061
1.93208 -1.46055 7.61414
0.900823 -0.281217 3.33099
1.36044 -0.566619 4.25074
-0.0392688 -0.0421113 0.453132
-0.0400528 -0.0245132 0.316105
-0.0413616 -0.0230225 0.334934
0.341891 -0.0239981 0.574717
0.235104 -0.0302824 0.507178
0.558986 -0.22145 1.12489
0.935341 -0.164789 1.20872
0.666666 -0.389201 3.04312
0.552828 -0.245299 1.0864
0.268816 -0.710906 2.6655
0.0775037 0.287541 1.57654
0.0573364 -1.29971 5.23362
-0.120467 -0.102257 0.809934
-1.4423 -0.626034 4.4779
0.179144 -0.0589949 0.582889
0.143525 0.00065082 0.429119
2.84959 0.737102 4.58843
2.85584 1.83001 4.55871
-1.55789 -0.464683 2.85096
-0.941534 -0.713535 3.92206
4.90863 -0.665207 7.16073
4.67734 -1.06354 6.59115
-0.293202 0.044012 0.673292
-1.52755 0.049962 2.82849
0.0706765 0.050484 2.74388
0.472441 -0.00958179 0.690885
-0.17316 -0.0553308 0.589505
0.200342 -0.00272966 0.313505
-0.306646 -0.0456121 0.736978
-0.512053 -0.770054 4.39987
0.577437 -0.540783 3.61603
-0.230667 -0.134424 0.974679
1.50582 -0.73936 5.23472
1.92814 -0.362469 4.13706
4.61424 -1.48564 9.94255
-0.0727443 -0.268292 3.31616
-1.66866 -0.582393 3.59288
-1.64534 -0.579121 3.54503
0.127675 -0.245892 3.01544
1.46335 -1.24397 6.28621
0.688383 -0.714064 4.39849
-0.434285 -0.0492683 0.75948
0.267377 0.0715758 0.259583
4.88334 1.80579 5.83041
-0.336608 -0.196514 0.973722
-0.194104 -0.0461356 0.71432
0.140887 0.00785458 0.280256
0.214746 -0.031494 0.486088
0.115889 0.13541 0.348034
-0.27223 0.0118402 0.669434
0.266915 0.0945137 2.28919
-0.137799 0.05939 2.72914
-0.533986 0.0796146 3.51232
1.25671 -0.773445 4.05634
3.82602 0.298368 5.60769
1.41566 -0.626572 3.67316
5.06617 -0.0928225 7.26705
0.228121 -0.0132081 0.432468
0.391143 -0.0557694 0.716959
-0.449275 -0.112503 0.904019
0.802175 -0.412892 4.06481
0.5125 -0.155059 0.99118
-0.503851 -0.948047 4.51606
-0.900842 -0.81113 4.03353
-0.110453 -0.0225508 0.857685
-0.310112 -0.142309 0.814198
0.558514 -0.219922 1.42218
0.930842 -0.448534 3.52768
0.649571 -0.183428 0.999745
0.52219 -0.21052 0.982768
1.26647 -0.18804 1.3813
-0.129811 -0.0441764 1.1824
1.24682 -0.198641 1.35346
0.491165 -0.152261 2.48945
0.504239 -0.314006 1.117
-0.811991 0.722157 3.74645
0.420106 -0.988447 4.85044
1.03527 -0.664197 4.09956
-0.458836 -1.00287 4.44968
-1.72396 0.11382 3.13617
0.463562 -0.0116687 0.668313
0.031954 -0.0114871 0.242168
0.198817 0.00307132 0.319257
-0.994367 -0.704228 3.94899
15.2706 -2.866 25.0684
13.3001 -4.24261 21.9281
0.1817 -0.0418298 1.31317
4.66862 -0.947567 6.60255
5.09576 -1.48304 7.56047
4.8733 -0.739058 7.37013
-0.356674 -0.0582047 0.902427
0.193137 0.0690937 0.404761
-0.197807 -0.157412 2.03748
0.488795 -0.153683 1.10225
0.227892 -0.0624627 0.636345
-0.432159 -0.125226 0.917483
-0.626349 0.0420749 0.90146
-0.316839 0.0713012 0.609372
-2.29605 -0.601779 4.42209
-0.871668 0.0558263 3.70527
-0.25214 0.168997 0.895954
-0.169495 0.0734646 0.842884
4.67848 -1.05842 6.41191
4.72477 -1.3559 6.77424
4.27792 -1.17071 6.6009
4.81555 -1.30441 6.96272
5.26257 -1.5437 7.3631
4.25281 -1.16282 6.55621
4.66761 -1.00183 6.57043
0.0319133 -0.012517 0.236141
0.052063 -0.0161954 0.261737
8.62936 -1.47416 9.99442
9.15938 -1.76533 9.73075
8.48312 -1.39029 10.0324
0.00698748 0.0220998 0.42948
0.245035 -0.0282644 0.528517
0.0765791 0.0174267 0.431815
-0.0028256 0.0288579 0.43124
0.20849 0.253145 3.06013
0.0607204 -0.366554 3.72395
10.3162 -0.395302 8.5661
6.38899 0.41708 7.53989
0.19399 -0.0728218 2.02428
-0.403607 0.00395049 0.669917
4.61545 -1.21394 7.15327
4.71426 -0.976939 6.64263
4.60307 -1.34879 6.8943
4.54503 -1.07425 6.48881
4.51078 -1.10575 6.43645
4.51862 -1.28498 6.4807
0.989503 -0.118045 4.55096
-1.16496 -0.591349 3.48432
-1.16008 -0.660021 3.67391
0.0216626 -0.928659 5.026
-0.513132 -0.752959 4.19208
-0.339336 -0.0626542 0.802449
4.94855 -0.975627 7.98053
4.96548 -0.971115 8.01676
4.6823 -1.14777 6.61956
4.57444 -1.1172 6.57964
6.26544 -1.77858 10.9136
3.51371 -1.80465 8.39802
-0.18367 -0.0629489 0.647117
0.234931 -0.0117811 0.441235
0.319175 -0.0883933 0.559325
0.260942 0.0662162 0.250968
-0.154192 0.0692272 0.205302
0.0362584 -0.0805558 0.722672
0.219567 0.116759 0.298159
0.134835 0.00152572 0.250172
0.317282 0.00776284 0.311178
-0.0404353 0.0424085 0.431719
1.93112 -0.874218 5.05083
-0.0137741 -0.163451 3.68936
-0.208137 -0.0474012 0.741157
0.308973 0.043371 0.451628
-0.285932 0.0919996 0.259507
-0.258386 -0.105276 0.845825
-0.864734 0.426429 3.30901
1.7482 -0.900063 4.41284
-0.138856 -0.0162595 1.22619
1.03582 -0.710375 3.66058
0.437478 -0.463236 2.69354
-0.00368543 -0.0196596 0.323791
-0.6225 1.06467 4.36412
3.11688 0.594106 4.74728
1.36802 -0.256101 4.19981
0.392873 -0.339491 3.16412
-0.21558 0.15448 2.99994
0.853529 -0.470344 4.06006
-0.232394 -0.759401 4.50119
0.779608 -0.199561 2.22808
0.280804 -0.610195 2.76774
0.129753 -0.34492 2.57598
-0.659683 -0.687195 4.50339
-0.52543 0.661082 3.30888
-0.0941019 -1.08375 5.14665
1.01655 -0.280261 3.20587
0.889516 -0.161261 2.60436
-0.326199 -0.0507371 3.51227
0.111494 -0.0212915 0.331234
-0.00470015 -0.0349804 0.397634
-0.301708 -0.063088 0.794797
-0.586177 -0.178023 1.24566
-0.175204 0.13699 0.314645
0.194134 -0.0490992 0.634031
0.468335 -0.0104007 0.681012
-0.496022 -0.171789 1.11561
-0.468065 -0.168114 1.05546
-0.472795 -0.171718 1.06052
4.74078 -0.869994 7.29652
-0.0313658 0.0064657 0.206463
-0.279087 -0.0871329 0.776472
-0.0379104 -0.0426663 0.451429
